# .PCD v0.7 - Point Cloud Data file format
VERSION 0.7
FIELDS x y z
SIZE 4 4 4
TYPE F F F
COUNT 1 1 1
WIDTH 1459
HEIGHT 1
VIEWPOINT 0 0 0 1 0 0 0
POINTS 1459
DATA ascii
-76.273331 7.4802518 -97.436035
-74.944427 8.6487379 -98.926529
-75.419418 10.147868 -97.059837
-74.190544 11.058973 -97.921768
-72.955551 12.569777 -97.065598
-70.373817 13.514667 -97.55175
-67.809677 14.418531 -98.037483
-64.650009 14.64619 -98.572128
-61.646111 14.869923 -98.735611
-55.273083 14.872899 -98.91806
-52.237469 14.666517 -98.764893
-50.894127 14.860689 -98.858894
-69.137482 15.068482 -96.212776
-67.314056 15.50274 -96.648743
-64.309906 15.789482 -97.106506
-61.454197 16.418053 -97.401932
-58.546928 16.712475 -97.894272
-55.438393 16.599684 -97.91526
-52.569935 16.574499 -97.725708
-49.608322 16.762114 -97.707169
-46.717007 17.339231 -98.341782
-43.782207 17.644711 -98.778481
-41.699356 17.950092 -98.9328
-60.544117 18.472103 -96.290024
-58.59938 18.563663 -96.534851
-55.584393 18.573009 -96.392715
-52.630642 18.480768 -96.383514
-49.302269 18.39818 -96.381439
-46.351742 18.891096 -96.965942
-43.491215 19.417126 -97.396164
-40.618729 19.730135 -97.880875
-37.772114 20.208893 -98.374321
-35.649536 20.808142 -98.888405
-27.612621 20.562029 -98.570061
-25.487316 19.88813 -98.020226
-23.15279 19.9573 -98.153358
-42.180172 21.103157 -96.16806
-40.128738 21.457178 -96.461563
-37.327251 22.035172 -96.891563
-34.577961 22.582108 -97.568604
-31.584911 22.994238 -97.831902
-28.531971 22.513187 -97.395554
-25.467741 22.268148 -96.651215
-22.610064 22.773703 -97.520599
-19.97504 23.713205 -98.499634
-34.104092 24.269726 -96.179283
-31.666847 24.325159 -96.312332
-29.027107 24.110302 -96.132584
-24.294685 24.261658 -96.072441
-22.210932 24.731102 -96.538254
-19.351625 24.931314 -97.091759
-16.618889 25.365551 -97.162666
-14.505639 26.584845 -96.623627
83.625977 -93.235992 -94.749756
84.304146 -93.536667 -94.236252
80.668388 -90.32946 -93.817268
82.254028 -91.634819 -94.546791
71.528374 -87.188492 -95.521568
73.682785 -87.540031 -94.826248
76.375214 -87.961914 -94.424057
79.61348 -88.952217 -94.464806
81.464714 -89.539978 -95.4086
65.959877 -84.045769 -95.949921
68.023155 -84.810555 -95.252213
70.448647 -85.683594 -94.403473
72.959587 -86.597687 -93.601814
62.218056 -81.283653 -95.87822
64.718651 -82.197296 -95.256355
67.379265 -82.718491 -94.178886
69.507401 -83.79142 -93.300911
56.65752 -78.329582 -95.91806
58.742687 -78.94191 -95.569481
61.574692 -79.421623 -95.078812
64.379761 -79.566887 -94.074745
66.437889 -80.296288 -93.524483
55.967606 -76.188667 -95.547539
58.544834 -76.476135 -94.824593
61.39399 -76.672531 -93.852806
63.615906 -77.61422 -93.263
44.009445 -72.109085 -95.953995
47.594593 -72.072784 -95.963333
49.892342 -72.54142 -95.85376
52.808712 -72.880096 -95.556274
55.507999 -73.45829 -94.883415
58.389511 -73.645332 -93.849487
60.621838 -74.430336 -93.175705
41.047241 -69.72393 -95.559158
43.53352 -70.215286 -95.233955
46.465252 -70.246284 -95.306877
49.546783 -70.371513 -95.253853
52.534756 -70.451599 -94.765434
55.41769 -70.51545 -93.87117
57.601372 -71.386703 -93.267502
38.105827 -67.144859 -95.178047
40.441765 -67.614937 -94.296684
43.485565 -67.717323 -94.040451
46.519917 -67.513885 -94.1521
49.493317 -67.6399 -93.892853
52.371914 -67.804657 -93.654762
54.759796 -68.410591 -93.279701
35.325523 -64.036156 -95.326553
37.217567 -64.708542 -94.144714
40.375652 -65.385712 -93.295532
43.458366 -65.25663 -93.382278
46.259331 -65.477097 -93.285103
49.387253 -65.654312 -93.08699
51.390831 -65.977371 -93.070374
32.640278 -60.504265 -95.530312
34.470932 -61.48037 -94.455734
36.312054 -62.44146 -93.310059
29.656239 -57.374084 -95.733887
31.713428 -58.311531 -94.897705
33.791843 -58.876751 -93.58683
16.573532 -54.095234 -95.874344
18.745054 -54.092358 -95.869904
26.075277 -54.216518 -95.782066
28.707813 -55.206226 -95.034065
31.266857 -55.653175 -93.844597
33.083927 -56.61747 -93.071472
14.488744 -51.767361 -94.799667
16.531776 -52.476681 -94.950912
19.476358 -52.52607 -94.665398
22.507486 -52.350113 -94.569366
25.466852 -52.589272 -94.457954
28.290937 -52.800819 -93.73381
30.489956 -53.551975 -93.203629
14.350056 -49.377815 -95.055229
16.346016 -49.580383 -93.888016
19.234865 -50.259247 -93.294937
22.252657 -50.823948 -93.095337
25.493557 -50.992851 -93.055901
14.421646 -46.898544 -95.251625
15.680167 -46.521732 -93.920609
14.632048 -43.046448 -94.76899
15.499352 -43.738369 -94.057053
-4.7309613 -39.542599 -93.668526
14.206586 -41.453167 -93.537186
15.27075 -41.730164 -93.260147
-4.0767994 -37.611229 -94.347679
-2.5696077 -36.094406 -94.621216
-3.4635563 -35.917564 -95.40799
-1.1890626 -35.036568 -94.388634
1.4698592 -34.354576 -94.569885
4.3739924 -34.327641 -94.090744
6.6103563 -34.121922 -93.394638
-93.372589 -6.494832 -93.587372
-92.676826 -6.208395 -94.326256
-93.126434 -5.8283796 -93.121719
-91.339531 -5.1302686 -94.05368
-88.459435 -4.3066893 -94.32003
-85.729813 -3.6893957 -95.049759
-82.838394 -3.6113818 -95.345627
-87.315041 -2.9231265 -93.325111
-85.245773 -2.3541243 -93.540848
-82.383141 -1.4863147 -94.488182
-80.745125 -0.4993096 -95.504837
-81.772308 0.96943218 -93.548744
-80.006813 1.6537641 -94.824753
-78.955856 4.3567481 -94.435989
-77.798347 5.7490382 -95.548126
-78.454498 6.9053631 -93.757416
-77.25032 7.813951 -94.829773
-76.078194 10.465837 -94.416969
-74.798668 11.744682 -95.492393
-75.285965 12.339423 -93.813911
-73.465248 13.382492 -94.498802
-70.897545 14.469074 -94.960762
-70.032013 15.532135 -93.983742
-67.59037 16.597481 -94.535912
-64.730164 17.230169 -95.02652
-62.209213 17.648249 -95.705719
-66.118576 18.029799 -93.122887
-64.041992 18.604259 -93.7771
-61.388569 19.248444 -94.451866
-58.581009 19.955391 -94.762604
-55.54076 19.964499 -94.732841
-52.435482 19.924997 -94.94416
-49.47921 19.743303 -94.924149
-46.822239 20.197901 -95.027534
-44.117935 20.732059 -95.80722
-57.902164 21.306625 -93.505005
-55.399143 21.393963 -93.47139
-52.512806 21.421515 -93.500984
-49.43541 21.562981 -93.565376
-46.214146 21.727034 -93.735741
-43.444862 22.256824 -94.378395
-40.608875 22.827597 -94.720238
-37.815239 23.30838 -95.164101
-35.716927 23.878727 -95.93721
-27.220604 23.82255 -95.85817
-26.091265 23.631409 -95.84977
-39.932537 24.214396 -93.341637
-37.186481 25.064125 -94.104492
-34.564304 25.714003 -94.642006
-31.545731 25.812254 -94.479057
-28.503029 25.477871 -94.476547
-25.569513 25.70796 -94.818298
-22.627159 26.126888 -95.327843
-19.517021 26.601767 -95.610321
-16.884096 26.693951 -95.762772
-14.166885 26.999878 -95.91983
-33.975189 27.042788 -93.039452
-31.772039 27.078815 -93.075256
-27.723104 27.178972 -93.172913
-25.163261 27.580757 -93.507217
-22.515091 27.941793 -93.907021
-19.446323 28.037603 -94.187881
-16.367476 28.25494 -94.420181
-13.55328 28.649584 -94.415169
-11.147746 29.438499 -93.84198
83.865311 -93.02861 -92.89949
85.005989 -93.337341 -92.274292
80.528084 -90.415489 -91.863464
82.440926 -91.449463 -91.523842
85.276291 -92.04303 -90.796974
74.844559 -87.065613 -92.867638
77.007629 -87.591026 -91.700386
79.139626 -89.104332 -91.467346
71.401207 -84.537537 -92.437698
73.602699 -85.3955 -91.618561
75.842613 -86.435455 -91.087807
68.448883 -81.707542 -92.37043
70.3592 -82.615707 -91.454514
72.523819 -83.524979 -90.561836
65.539261 -78.310944 -92.557915
67.539604 -79.420586 -91.532516
69.411469 -80.573143 -90.421516
62.462765 -75.591148 -92.71637
64.643875 -76.431458 -91.811928
66.679649 -77.116364 -90.681702
59.529568 -72.714874 -92.795067
61.644142 -73.418137 -92.040298
63.974892 -73.791718 -90.762123
56.666401 -69.337883 -92.888206
58.671593 -70.304527 -92.211288
61.261639 -70.746292 -90.966515
63.254993 -71.713097 -90.114967
40.644493 -66.008049 -92.953156
49.803905 -66.099907 -92.959549
52.896255 -66.632446 -92.826462
55.716969 -67.263817 -92.178307
58.339657 -67.612183 -91.026436
60.337879 -68.473145 -90.243958
38.232197 -63.680511 -92.643143
40.527546 -64.234673 -92.35714
43.469902 -63.903717 -92.514694
46.52356 -64.164421 -92.344406
49.563644 -64.331421 -92.212547
52.506344 -64.455795 -92.012344
55.383343 -64.575462 -91.034927
57.642178 -65.479698 -90.306679
35.750641 -60.579472 -92.871574
37.591335 -61.41758 -92.232689
40.599449 -61.519409 -91.235062
43.50515 -61.557102 -91.154945
46.471035 -61.490959 -91.040573
49.452847 -61.506321 -90.915977
52.378853 -61.820862 -90.641365
54.817085 -62.433838 -90.312111
35.045471 -58.166267 -92.433342
37.559158 -58.506042 -91.373268
40.143559 -59.120907 -90.455933
43.520012 -59.554413 -90.245461
46.417339 -59.477688 -90.154625
49.110962 -59.544777 -90.241325
51.479042 -59.982449 -90.02298
32.388149 -54.599037 -92.734818
34.540852 -55.459747 -91.660484
36.876804 -56.037556 -90.528763
22.733845 -51.119816 -92.89341
25.531202 -51.215031 -92.842804
28.791891 -51.499199 -92.697769
31.631233 -52.369167 -91.964363
34.126663 -52.763298 -90.702347
17.711802 -48.677296 -92.738213
19.661209 -48.930603 -92.426155
22.549046 -49.429443 -92.096992
25.493334 -49.518684 -91.829132
28.536152 -49.552761 -91.55703
31.216005 -49.784004 -90.733849
33.247551 -50.774506 -90.240753
17.249491 -46.428444 -92.489571
19.497702 -46.585953 -91.341431
22.468325 -46.650696 -90.70459
25.411835 -46.841984 -90.463058
28.186579 -47.348141 -90.37191
30.50696 -47.903275 -90.069923
16.999912 -43.408993 -92.16217
19.217716 -43.676174 -90.723488
22.134085 -44.435276 -90.114174
24.157341 -44.959934 -90.012817
-6.8937368 -40.437019 -90.226639
-4.8934922 -39.835606 -91.247627
14.213143 -40.407707 -92.386528
16.479813 -40.538193 -91.514565
18.577564 -41.041855 -90.252853
-3.6296048 -37.817181 -91.216576
-2.8698852 -36.147446 -91.566734
14.541139 -38.135525 -92.458549
16.222797 -37.522068 -91.29435
18.101318 -38.521557 -90.047234
-3.0408325 -35.924828 -90.204498
-1.5771395 -34.321774 -91.556259
1.4440172 -33.424213 -91.994102
4.4544058 -33.417023 -92.185852
7.6708412 -33.635662 -92.37307
10.10151 -33.441574 -91.218384
16.622885 -34.872929 -90.82267
-0.49503577 -32.823803 -90.356506
1.5667565 -32.656937 -90.601128
4.6402955 -32.442455 -90.790733
7.3377771 -32.367493 -90.844566
10.004341 -32.641956 -90.496765
-93.563637 -6.1295028 -92.870056
-93.635361 -4.7248869 -91.489845
-91.691643 -3.991071 -92.075844
-89.327293 -3.3274636 -92.52002
-93.375961 -2.6314504 -90.266312
-91.34938 -2.2211695 -90.799126
-88.425217 -1.5891201 -91.302078
-85.755386 -1.0927492 -92.19046
-83.671967 -0.35602 -92.891571
-87.619423 0.34298837 -90.330048
-85.348328 1.294423 -91.05867
-82.900406 1.8621281 -92.262299
-80.958611 2.9344559 -92.987061
-84.464142 3.478754 -90.457176
-82.332863 4.3611374 -91.207344
-80.277565 4.8857145 -92.364632
-81.556694 6.4041457 -90.391289
-79.515404 7.5428119 -91.450699
-77.84124 8.8503141 -92.899841
-78.49398 9.749671 -90.883896
-77.09079 10.802255 -91.758308
-75.764915 12.891777 -91.31089
-73.941963 14.254822 -91.718559
-71.867813 14.928387 -92.887917
-72.666306 15.452311 -90.94136
-70.422951 16.464897 -91.53183
-68.193008 17.443886 -92.32695
-69.144974 18.322182 -90.341988
-67.341911 19.002928 -91.177536
-64.533249 19.85516 -91.691856
-61.83498 20.563387 -92.293495
-59.438496 20.863777 -92.768356
-63.681797 21.204193 -90.281319
-61.130238 21.824213 -91.036095
-58.480042 22.440386 -91.433418
-55.525928 22.682878 -91.68634
-52.637253 22.868151 -91.828888
-49.600201 23.035545 -92.15992
-46.392429 23.094036 -92.222145
-44.098083 23.61194 -92.38427
-41.833294 23.89735 -92.941795
-55.315228 24.130096 -90.202141
-52.241646 24.481489 -90.455208
-49.399231 24.798885 -90.635513
-46.472614 24.850784 -90.855904
-43.407974 25.022322 -91.068245
-40.43557 25.492226 -91.499702
-38.06353 26.118685 -92.231476
-35.560211 26.919924 -92.890106
-31.498247 26.968704 -92.959007
-29.274017 26.872477 -92.804115
-39.566547 27.307129 -90.313553
-37.250336 27.781555 -91.024567
-34.479408 28.240049 -91.42524
-31.568647 28.352919 -91.549683
-28.53433 28.37377 -91.428101
-25.651388 28.969591 -91.878479
-22.506834 29.394295 -92.269073
-19.724325 29.407015 -92.237823
-16.527029 29.676456 -92.59832
-13.481593 29.863892 -92.562889
-10.148564 29.61862 -91.767509
-8.2139397 29.388706 -90.687096
-27.410976 30.03256 -90.039566
-25.085827 30.328779 -90.566917
-22.549166 30.623455 -90.71273
-19.373606 30.5231 -90.815971
-16.590668 30.617197 -91.124504
-13.539831 30.499102 -91.197639
-11.033054 30.25539 -90.785561
-7.2371869 30.202478 -90.125618
82.952286 -90.455101 -89.141747
85.468094 -90.674934 -89.089302
87.123558 -90.52861 -89.257393
77.669426 -87.324623 -89.375313
79.552124 -88.316986 -88.550545
82.144402 -89.431641 -87.908096
85.716675 -89.678406 -87.60965
87.575256 -89.324135 -87.847275
74.5392 -84.448929 -89.552551
76.493088 -85.430023 -88.440331
78.355026 -86.553741 -87.454971
71.354156 -81.553284 -89.55349
73.503372 -82.557259 -88.432106
75.488251 -83.72364 -87.407211
68.746109 -78.483971 -89.502342
70.399902 -79.594299 -88.539291
72.41658 -80.572533 -87.529778
65.890099 -75.089745 -89.934586
67.824509 -76.313423 -88.7509
69.407265 -77.356483 -87.630417
65.282684 -73.057373 -89.083405
66.686058 -73.925217 -88.047638
62.417961 -69.730606 -89.449089
64.273254 -70.616356 -88.279648
66.10125 -71.863533 -87.127335
59.545376 -66.597992 -89.699379
61.592243 -67.398186 -88.635628
63.50103 -68.179573 -87.433273
56.67926 -63.557156 -89.710495
58.693748 -64.363365 -88.995155
60.901573 -64.774963 -87.749176
50.680187 -60.086632 -89.946243
53.022141 -60.560589 -89.771027
55.737938 -61.199574 -89.115982
58.229958 -61.706001 -87.870857
60.151878 -62.555855 -87.105545
40.602463 -58.060265 -89.505592
43.49538 -58.20306 -89.508385
46.500874 -58.2192 -89.461754
49.598743 -58.200417 -89.379822
52.525589 -58.490662 -88.82296
55.369221 -58.57394 -87.879196
57.414169 -59.388443 -87.281769
37.932476 -55.10825 -89.233894
40.459965 -55.559353 -88.349098
43.436348 -55.487099 -88.409683
46.50259 -55.493454 -88.232376
49.381222 -55.553596 -88.04995
52.39661 -55.812817 -87.549568
54.577187 -56.349205 -87.194107
35.266079 -51.949936 -89.557541
37.448891 -52.528782 -88.397713
40.243042 -52.979095 -87.342133
43.555119 -53.338268 -87.342484
46.34483 -53.244904 -87.321831
49.236237 -53.246281 -87.142548
32.220543 -48.683384 -89.628952
34.533184 -49.434395 -88.792496
37.087219 -49.87936 -87.573296
39.085365 -50.873318 -87.058395
25.857666 -45.583523 -89.836449
28.669142 -46.020504 -89.550591
31.576872 -46.457233 -88.80616
34.22448 -46.800613 -87.71859
36.337555 -47.650665 -87.125099
20.492918 -42.762016 -89.866776
22.596062 -43.173767 -89.60376
25.557919 -43.479702 -89.246719
28.470648 -43.472862 -88.629189
31.356272 -43.598759 -87.739143
33.523438 -44.745831 -87.09671
-9.7064943 -39.530716 -89.365936
-7.6689925 -39.557861 -89.470032
-5.4484978 -39.270271 -89.884956
19.810217 -40.307423 -89.442993
22.556084 -40.55957 -88.902405
25.542791 -40.393494 -88.375984
28.374981 -40.633732 -87.6791
30.597906 -41.341129 -87.262726
-12.693658 -36.767212 -88.557159
-10.530077 -37.355347 -88.288574
-7.4616914 -37.581333 -88.053902
-4.7610812 -37.249081 -88.862129
17.615412 -36.86536 -89.835472
19.35498 -37.499893 -89.139305
22.654224 -37.434765 -88.555031
25.509932 -37.579617 -87.70105
27.328211 -38.525539 -87.191841
-15.545392 -34.19384 -87.366852
-13.636735 -35.219437 -87.638084
-11.117961 -35.740723 -87.280296
-6.9886599 -35.827999 -87.143791
-3.8980575 -34.941204 -87.80043
-2.5091367 -33.949963 -89.037407
11.567319 -33.077911 -89.907219
17.397509 -34.133606 -89.694077
19.313896 -34.511093 -89.003197
22.414251 -34.503216 -88.263847
24.844028 -34.686909 -87.54409
-3.1743948 -32.568439 -87.155243
-1.3054547 -31.763857 -88.274185
1.4159991 -31.302658 -88.811691
4.4329758 -30.943001 -89.006409
7.6223216 -30.986692 -88.732872
10.520247 -31.397352 -88.528641
13.017596 -31.34726 -88.12133
17.495684 -32.329479 -89.039543
19.485672 -31.499889 -88.628517
22.455849 -31.445972 -88.024666
24.483433 -31.950756 -87.233017
-0.45877171 -29.842266 -87.124741
1.7090042 -29.465088 -87.372208
4.4962897 -29.42215 -87.581535
7.093626 -29.694811 -87.442871
9.4973793 -29.922047 -87.071007
20.380222 -29.155811 -88.526382
22.251299 -28.568136 -87.801102
21.981884 -26.169386 -87.526031
-94.163422 -3.0819397 -89.982361
-93.966438 -1.4568484 -88.527443
-91.737823 -0.86745536 -88.859154
-89.305069 -0.2866495 -89.806923
-90.746246 0.60590875 -87.848099
-88.525894 1.5571833 -88.683136
-86.358673 2.3586314 -89.436615
-87.689354 3.4429703 -87.442467
-85.379875 4.3854957 -88.353134
-83.519279 5.5172982 -89.35524
-84.126007 6.1528149 -87.684212
-82.422676 7.3654523 -88.353081
-80.446945 8.2557583 -89.262199
-81.244186 9.4820557 -87.248108
-79.590347 10.610926 -88.559547
-77.712013 11.740404 -89.714012
-78.508179 12.406901 -87.882889
-76.573608 13.58305 -88.585602
-74.53627 14.664817 -89.517952
-75.413284 15.29603 -87.521454
-73.392792 16.305761 -88.380386
-71.201653 17.40819 -89.060677
-72.121864 18.083883 -87.090897
-69.984566 18.880762 -88.177322
-67.902191 20.082403 -88.887718
-65.646454 20.852057 -89.646057
-66.948402 21.457365 -87.743134
-64.425751 22.217634 -88.427277
-61.644135 23.068991 -88.875183
-58.87545 23.673792 -89.374222
-56.209755 23.872545 -89.740829
-61.080662 24.43762 -87.531662
-58.29501 24.759239 -88.23362
-55.534878 25.458948 -88.448914
-52.589138 25.749594 -88.751762
-49.591312 26.178192 -89.075073
-46.498558 26.378979 -89.397369
-43.538574 26.37821 -89.356544
-41.185139 26.705198 -89.596588
-54.227215 27.099628 -87.06411
-52.088734 27.257116 -87.264847
-49.240685 27.548492 -87.748428
-46.463577 28.02709 -87.857491
-43.361614 28.049746 -87.875053
-40.636349 28.515394 -88.554955
-37.620182 29.187468 -89.108528
-34.694813 29.646427 -89.513206
-31.357491 29.734236 -89.625977
-29.127289 29.761953 -89.7341
-8.2484865 29.974203 -89.955315
-39.997509 30.321869 -87.339325
-37.368942 30.543215 -87.66317
-34.449791 30.610386 -88.056061
-31.425507 30.714825 -88.189308
-28.402752 31.080435 -88.330132
-25.524721 31.559092 -88.541122
-22.52566 31.954494 -88.47419
-19.54353 31.886618 -88.440025
-16.478399 32.021358 -88.486351
-13.486548 31.748125 -88.521057
-10.467036 31.108585 -88.527214
-7.4418254 30.937904 -88.451256
-5.2228961 31.625938 -87.937675
-24.324837 33.007118 -87.036667
-23.708031 33.050598 -87.014282
-19.940605 33.015541 -87.029099
80.338547 -87.531891 -86.31691
82.494263 -88.197639 -85.613327
85.504982 -88.817146 -85.470871
88.197617 -88.268623 -85.41198
77.389977 -84.59185 -86.378273
79.339592 -85.6726 -85.341484
81.29567 -86.723831 -84.311783
74.25605 -81.684608 -86.349571
76.325668 -82.571114 -85.364922
78.336411 -83.687401 -84.318794
71.418083 -78.673096 -86.013321
73.279305 -79.735931 -85.223976
75.459084 -80.773544 -84.457954
68.768936 -75.471207 -86.521408
70.369217 -76.53096 -85.34269
72.40741 -77.803192 -84.096687
67.975998 -73.260788 -85.776344
69.506699 -74.343971 -84.624794
65.435364 -69.833321 -86.402328
66.955261 -70.763718 -85.168716
62.883266 -66.406006 -86.897118
64.729103 -67.485519 -85.585815
66.184212 -68.595177 -84.345688
62.2132 -64.159233 -86.333664
63.772438 -64.727913 -85.057266
59.413593 -60.827465 -86.662697
61.43726 -61.566231 -85.455841
63.298103 -62.625999 -84.28788
56.533283 -57.477196 -86.788872
58.69688 -58.406696 -85.813965
60.670647 -58.969078 -84.603523
50.827538 -54.063427 -86.956474
52.866413 -54.484348 -86.744171
55.657749 -55.319836 -86.105087
58.091904 -55.765018 -84.850197
40.846733 -52.123947 -86.312607
43.366444 -52.000389 -86.336823
46.573292 -51.897331 -86.504524
49.610432 -52.15168 -86.451118
52.528744 -52.509357 -85.847839
55.357731 -52.665283 -84.824821
57.276966 -53.686317 -84.229172
38.198055 -49.03096 -86.571892
40.525177 -49.635334 -85.390717
43.630074 -49.73172 -84.849236
46.511608 -49.568581 -85.163712
49.469898 -49.592922 -85.000153
52.283936 -49.874195 -84.568443
54.500122 -50.679668 -84.209358
35.351593 -45.695583 -86.591118
37.546803 -46.491032 -85.872978
40.05891 -46.733665 -84.629578
46.77227 -47.850273 -84.080322
49.503815 -47.897785 -84.054253
32.612606 -42.815571 -86.742935
34.588146 -43.465038 -86.013565
37.278545 -43.531551 -84.798927
39.294266 -44.422379 -84.133698
29.16004 -39.428783 -86.696922
31.647661 -40.258556 -86.17086
34.375923 -40.617046 -84.926308
36.432987 -41.567814 -84.684464
-9.4137297 -36.079781 -86.965775
-8.5589237 -36.110016 -86.926788
26.715452 -36.756184 -86.905418
28.608227 -37.464371 -86.250504
31.386919 -37.674068 -84.907181
33.573059 -38.599537 -84.166885
-15.81986 -33.358341 -86.487686
-13.393954 -33.859035 -86.173943
-10.441695 -34.39571 -85.909912
-7.5118008 -34.366848 -85.874542
-5.0668573 -34.017677 -86.438858
26.196756 -34.337841 -86.467896
28.497725 -34.454697 -85.492447
30.906408 -34.757553 -84.474846
-18.358608 -30.883991 -84.934441
-16.504786 -31.776724 -85.104973
-13.678954 -32.262985 -84.69812
-10.585681 -32.40139 -84.483055
-7.2400527 -31.762529 -84.507645
-4.6020207 -31.500332 -85.705055
-2.3105302 -30.640553 -86.643517
11.039003 -30.123278 -86.859131
13.696341 -30.187695 -86.863426
15.090019 -30.079971 -86.519318
25.929001 -31.284155 -86.088867
28.291952 -31.618406 -84.624672
30.287474 -32.707962 -84.040283
-18.906277 -29.446861 -84.343086
-17.849335 -29.905655 -84.082809
-6.4040661 -29.890575 -84.091599
-4.1050816 -29.071198 -84.723579
-1.4579175 -28.52722 -85.44278
1.3924605 -27.995132 -86.070274
4.5922184 -27.926735 -85.920959
7.4966321 -28.271908 -85.633461
10.431664 -28.603987 -85.428116
13.501856 -28.590555 -85.384636
15.714503 -28.352699 -85.542046
23.601349 -27.815905 -86.795082
25.562765 -28.498995 -85.715019
27.473454 -28.900923 -84.297783
-0.32414481 -26.715595 -84.308945
1.5567268 -26.447575 -84.612144
4.3676414 -26.428776 -84.529366
6.9094987 -26.712994 -84.238647
9.7089691 -26.990219 -84.084137
14.203953 -26.623985 -84.169769
16.264679 -25.555096 -84.710175
23.175991 -25.210287 -86.276833
25.213926 -25.678432 -84.878319
27.088465 -26.900642 -84.01828
17.3512 -23.614838 -84.143143
23.135386 -23.149881 -85.063614
24.434446 -23.096603 -84.313301
-94.342491 -0.89968866 -85.432068
-92.661446 -0.21136492 -85.343399
-91.210541 1.2673787 -85.399483
-89.623573 2.6111195 -86.123817
-88.244324 4.2196946 -85.431618
-86.254974 5.4696836 -86.163841
-87.084938 6.0871811 -84.081696
-85.155556 7.0106101 -85.16922
-83.139626 8.2033539 -86.012543
-81.866669 10.009101 -85.228325
-80.478081 11.386884 -85.967178
-79.214539 13.231888 -85.371147
-77.38205 14.46094 -86.153267
-78.105988 15.200157 -84.188766
-76.269272 15.998046 -85.296173
-74.148041 17.273645 -85.903366
-72.959152 18.737295 -85.080925
-70.685532 19.864986 -85.698929
-68.939102 20.719343 -86.62101
-69.387955 21.350975 -84.943573
-67.55439 22.453493 -85.468788
-64.910835 23.483646 -86.023354
-62.535812 23.951405 -86.933975
-64.153908 24.508625 -84.938507
-61.485035 25.289267 -85.513771
-58.581734 26.180378 -85.731621
-56.098347 26.72567 -86.503319
-53.77174 26.945858 -86.942932
-57.554085 27.344311 -84.46862
-55.372063 27.913898 -85.263222
-52.54842 28.545631 -85.617531
-49.55555 29.004797 -85.74781
-46.640049 29.367474 -86.211937
-43.310959 29.43738 -86.499245
-41.707035 29.572527 -86.513191
-51.096977 30.035011 -84.011475
-49.1968 30.277025 -84.288391
-46.257511 30.533735 -84.882996
-43.508278 30.995693 -85.04921
-40.541988 31.436287 -85.442055
-37.564713 32.022255 -85.765251
-34.498066 32.160145 -85.847588
-31.606352 32.195267 -85.985771
-28.703722 32.536118 -86.259926
-26.178312 32.758411 -86.541069
-22.464546 32.948238 -86.889313
-18.551538 32.857834 -86.731133
-16.518867 32.886738 -86.524384
-13.082627 32.728115 -86.344658
-10.382054 32.374031 -85.789886
-7.4985385 32.200195 -85.504662
-4.4928837 31.921806 -85.407051
-2.5614965 31.76972 -84.607437
-39.45694 33.135387 -84.098511
-37.282978 33.130154 -84.347992
-34.481213 33.151054 -84.402618
-31.415905 33.333836 -84.431923
-28.353401 33.363449 -84.829498
-25.426744 33.647457 -85.276833
-22.516459 33.696011 -85.460014
-19.598866 33.720589 -85.387062
-16.489351 33.466648 -85.169685
-13.628572 33.439995 -85.030029
-11.128144 33.218838 -84.459152
83.331024 -87.336472 -83.509087
85.673912 -87.621574 -82.829872
88.20916 -87.481003 -82.718513
80.326759 -84.808601 -83.303665
82.416618 -85.698326 -82.373276
84.845131 -86.623177 -81.500656
89.387039 -86.775246 -81.674393
77.285568 -81.619812 -83.345345
79.429077 -82.535034 -82.369469
81.404388 -83.530365 -81.418121
74.298355 -78.752541 -83.603218
76.469803 -79.447174 -82.507278
78.576103 -80.269562 -81.37764
71.265923 -75.805779 -83.459274
73.575874 -76.519295 -82.815674
75.817383 -76.926605 -81.603493
68.809517 -72.323814 -83.52755
70.495605 -73.429573 -82.666466
73.035629 -74.054306 -81.798355
75.027382 -74.965393 -81.067703
68.088051 -70.242027 -82.67366
69.949821 -71.087418 -81.535042
65.725174 -66.632462 -83.368324
66.876495 -67.719131 -82.268944
69.099213 -68.872269 -81.043152
65.128433 -64.343941 -82.637665
66.181137 -65.371773 -81.582916
62.708271 -60.660366 -83.496025
63.99918 -61.635651 -82.313255
59.950035 -57.046387 -83.915741
61.88559 -58.285027 -82.805359
63.305805 -59.34589 -81.541313
59.280544 -55.027283 -83.425888
60.960999 -55.730976 -82.103821
56.42878 -51.660957 -83.62957
58.53373 -52.511303 -82.532265
60.302666 -53.290051 -81.276093
41.76889 -48.430027 -83.78627
43.090477 -48.424049 -83.769463
46.044224 -48.119366 -83.945061
49.772968 -48.073273 -83.958908
52.914619 -48.608894 -83.700417
55.597519 -49.384178 -82.796989
57.80006 -49.995003 -81.643646
41.39323 -46.263672 -83.470535
43.474819 -46.425457 -82.71096
46.509098 -46.414825 -83.013649
49.501446 -46.391373 -83.165108
52.529823 -46.456032 -82.662285
55.018158 -46.858479 -81.682587
38.421989 -42.572498 -83.770729
40.59219 -43.434189 -82.933884
43.152996 -43.942051 -81.537613
46.674438 -44.11808 -81.566772
49.458511 -43.933945 -81.647339
52.20174 -44.227848 -81.457069
54.161201 -44.910744 -81.075249
35.551777 -39.57869 -83.733101
37.628738 -40.327972 -83.054344
40.400356 -40.66188 -81.917961
42.143486 -41.35754 -81.093765
32.771141 -36.827076 -83.886879
34.622467 -37.457771 -83.165291
37.299263 -37.67564 -81.837402
39.620865 -38.575859 -81.221931
32.114311 -34.224251 -83.563042
34.520866 -34.490486 -82.213593
36.589279 -35.297112 -81.289795
-16.089844 -30.415564 -83.640892
-13.464254 -30.827267 -83.404388
-10.496568 -30.916363 -83.40332
-8.2530689 -30.668774 -83.71209
29.651791 -30.921051 -83.791367
31.553902 -31.40501 -82.783142
33.802925 -31.976278 -81.557083
-19.065393 -27.985109 -82.725021
-16.583193 -28.650692 -82.292595
-13.543262 -28.844854 -81.953735
-10.47866 -28.677929 -81.95401
-7.5255899 -28.427204 -82.59182
-4.7832146 -27.844963 -83.33149
-2.0404983 -27.169044 -83.81485
8.7449646 -27.04381 -83.952133
10.519851 -27.077402 -83.921036
12.247137 -27.0734 -83.975006
28.774733 -28.242773 -83.11882
31.103277 -28.745207 -81.864967
33.058739 -29.920975 -81.003204
-19.772051 -26.632858 -81.451225
-17.570557 -26.869488 -81.091286
-9.1697235 -26.938427 -81.022354
-6.980567 -26.42775 -81.277893
-4.3775325 -25.956945 -81.8778
-1.5007925 -25.529022 -82.491127
1.3660529 -24.918848 -83.121674
4.6189599 -24.884714 -83.191315
7.5566063 -25.342724 -83.038086
10.429082 -25.46394 -82.890007
13.398014 -25.36307 -83.268677
15.466149 -24.471027 -83.815491
26.378759 -24.94824 -83.602402
28.334885 -25.637444 -82.254082
30.275236 -26.73588 -81.05806
-0.46252888 -23.754221 -81.249893
1.7143202 -23.32123 -81.609772
4.4793768 -23.043667 -81.688957
7.3518796 -23.147957 -81.578064
10.709064 -23.276407 -81.495354
13.618248 -22.945698 -81.854553
16.500748 -22.46615 -82.469872
18.290333 -21.93527 -82.36644
23.829994 -23.197521 -83.943985
25.725491 -22.351349 -82.995819
27.679472 -22.796139 -81.602074
17.935844 -20.980232 -81.074005
18.277363 -20.970631 -81.082901
26.223101 -20.672039 -81.944061
27.244827 -20.643127 -81.23262
-94.212502 -1.5797838 -82.568932
-92.117104 -0.7151975 -82.238297
-90.949821 1.1835428 -82.749619
-89.48185 2.4247136 -82.168694
-88.185791 4.4238005 -82.512695
-86.916237 5.7558613 -81.596558
-87.108902 6.1750469 -82.709946
-85.734657 7.6175618 -82.521049
-83.994286 8.997963 -83.883087
-84.288216 9.3811588 -82.108994
-82.708237 10.682929 -82.590309
-80.798973 11.775043 -83.500076
-81.507744 12.500487 -81.717033
-79.702843 13.689932 -82.604134
-78.353333 15.574454 -82.203316
-76.757347 17.051561 -82.576904
-74.858383 17.933445 -83.604446
-75.345398 18.22867 -81.965233
-73.465263 19.436831 -82.507172
-71.54351 20.671093 -83.072754
-72.023247 21.019836 -81.221542
-70.23082 21.848471 -82.29702
-68.028275 23.282047 -82.7435
-66.610565 24.306438 -82.119736
-64.453911 25.381495 -82.434677
-61.907269 26.427834 -83.049576
-59.560059 26.914925 -83.853729
-60.996689 27.48094 -81.838234
-58.418758 28.143496 -82.479263
-55.816143 29.239645 -82.758202
-52.752625 29.88092 -83.535454
-50.870689 29.967194 -83.993347
-54.588661 30.258863 -81.7696
-52.44614 30.808708 -82.150078
-49.507534 31.271759 -82.515739
-46.555588 31.901148 -82.575569
-43.683651 32.4217 -83.170639
-41.141357 32.536236 -83.46608
-9.1533279 32.973663 -83.90036
-7.1406126 32.890369 -83.558556
-4.2989969 32.587933 -82.635628
-1.9083866 32.01852 -82.236023
-45.24728 33.06345 -81.321724
-43.217655 33.450562 -81.791771
-40.352848 34.018482 -82.326248
-37.488277 34.345879 -82.553444
-34.512608 34.350712 -82.507111
-31.538157 34.44558 -82.489525
-28.444248 34.714817 -82.51786
-25.536413 34.945492 -82.449631
-22.546459 34.79232 -82.497665
-19.46534 34.761837 -82.543121
-16.595264 34.351944 -82.525551
-13.454085 34.347504 -82.520592
-10.550696 33.755455 -82.585442
-7.6377268 33.374687 -82.290085
-5.5231934 33.073376 -81.688408
86.686592 -87.022964 -80.48616
88.380951 -87.074356 -79.42514
90.350052 -87.18412 -79.034889
83.405594 -84.639938 -79.803291
85.230042 -85.979759 -79.30899
88.524101 -86.89212 -79.429436
90.145149 -86.952332 -79.109062
80.491333 -81.58567 -80.412201
82.123138 -82.731163 -79.371468
77.736183 -78.2929 -80.734924
79.704491 -79.452248 -79.541496
81.329643 -80.537498 -78.450272
77.027054 -76.240105 -80.046906
78.719398 -77.050751 -78.794518
74.049957 -72.975677 -80.393806
76.247047 -73.652344 -79.190384
78.065285 -74.597679 -78.058548
68.590424 -69.156738 -80.950798
70.946579 -70.101013 -80.50473
73.434723 -70.574791 -79.34977
75.604744 -71.326004 -78.417267
67.98555 -67.077019 -80.395264
70.51062 -67.537811 -79.490173
72.746597 -68.172966 -78.499512
65.800659 -63.463951 -80.547615
67.295059 -64.457687 -79.37825
69.96283 -65.081284 -78.489136
65.219025 -61.237099 -79.692841
66.675163 -62.147015 -78.456764
62.897522 -57.288071 -80.68985
64.110886 -58.578671 -79.483055
62.209805 -55.190243 -79.870697
63.399029 -56.191669 -78.808754
59.765083 -51.457531 -80.755104
61.164036 -52.601948 -79.438599
59.016792 -49.191826 -80.060844
60.486012 -49.845097 -78.783852
56.09129 -45.975193 -80.361832
58.303104 -46.695553 -79.149422
60.074783 -47.722256 -78.101166
44.009323 -42.940887 -80.412613
46.28643 -42.75259 -80.542999
49.642132 -42.410473 -80.709587
52.71563 -42.899719 -80.396561
55.458778 -43.597794 -79.305161
57.425812 -44.387669 -78.373703
41.564629 -39.600178 -80.812317
43.633823 -40.462639 -79.768326
46.487671 -40.518391 -79.299164
49.503403 -40.572796 -79.700188
52.422775 -40.620007 -78.998169
54.640495 -41.372093 -78.395233
38.463631 -36.727253 -80.725243
40.637924 -37.266914 -80.038322
43.296616 -37.593132 -78.936165
46.96423 -38.471565 -78.283691
49.383736 -38.395302 -78.423592
51.543816 -38.703377 -78.103462
35.696568 -33.322933 -80.908745
37.767078 -34.33762 -80.210991
40.409039 -34.555046 -78.92923
42.54884 -35.385967 -78.148819
34.938007 -31.1807 -80.379028
37.372883 -31.559198 -79.041634
39.541885 -32.461498 -78.293327
-15.989397 -27.138514 -80.910011
-13.411881 -27.330675 -80.696732
-10.849173 -27.292896 -80.814453
32.248898 -27.926237 -80.464676
34.363544 -28.568119 -79.232109
36.529755 -29.524755 -78.340103
-19.351191 -25.252443 -80.030006
-16.445398 -25.436602 -79.627998
-13.55892 -25.481842 -79.343369
-10.534724 -25.490688 -79.763824
-7.7328906 -25.140741 -80.406036
-4.622427 -24.452333 -80.718407
-2.4617267 -24.286493 -80.806786
29.652617 -24.958956 -80.612923
31.314724 -25.642147 -79.33168
33.434303 -26.639008 -78.434914
-21.175316 -22.628078 -78.556656
-19.838203 -23.256256 -78.663322
-16.740973 -23.668932 -78.21096
-13.464172 -23.616175 -78.121429
-10.254305 -23.186424 -78.501884
-7.4158583 -22.665222 -79.08506
-4.4961433 -22.502586 -79.337112
-1.5324255 -22.433512 -79.496742
1.2944025 -21.916834 -80.161705
4.4984865 -21.618366 -80.387573
7.6010981 -21.743034 -80.287277
10.39831 -21.81583 -80.269211
13.272237 -21.456457 -80.546799
16.216862 -21.205797 -80.654526
18.747452 -21.095116 -80.334061
29.01326 -22.266459 -80.112053
30.861517 -22.711763 -78.705032
-3.9827354 -20.944607 -78.048416
-1.0068198 -20.879662 -78.242226
1.7212365 -20.426886 -78.764648
4.4929194 -20.168762 -78.824577
7.3500957 -20.241882 -78.747032
10.610522 -20.138937 -78.809563
13.569189 -19.837175 -79.065048
16.567869 -19.655472 -79.199188
18.592318 -19.843279 -79.353371
28.415312 -19.822607 -79.300819
30.281767 -20.709654 -78.097237
17.247107 -17.143291 -78.350189
18.085276 -17.70429 -78.481255
-93.56456 -3.4843452 -79.120361
-92.291962 -3.5420771 -78.413734
-93.838516 -2.408134 -80.27317
-91.321777 -1.4994481 -79.431305
-89.773689 -0.42974055 -78.376129
-90.36615 0.58540207 -80.082802
-88.929512 1.6578199 -79.351921
-87.658188 4.2783885 -79.482903
-86.913849 5.6885462 -79.647003
-86.021492 7.6294069 -79.462898
-84.595528 9.7846527 -79.367661
-83.412445 11.272012 -79.536949
-81.958656 12.911536 -79.330406
-80.34729 14.344815 -79.606323
-78.899292 15.858559 -79.362068
-76.609558 17.286098 -79.545021
-74.76815 17.920147 -79.185379
-75.255142 18.243401 -80.065224
-73.391586 19.42642 -79.409729
-71.688629 20.744463 -79.094505
-72.006996 21.003151 -80.822205
-70.365395 22.021019 -79.561485
-68.479965 23.479803 -79.465485
-67.026627 24.561586 -79.461525
-64.490242 25.953074 -79.589333
-62.878654 26.919758 -80.023697
-63.057945 27.046478 -79.437202
-61.377502 27.964924 -79.458878
-58.669319 29.288271 -79.657852
-56.417805 29.895422 -80.589767
-57.571423 30.160633 -78.610619
-55.267139 31.060492 -79.400406
-52.478764 32.23682 -79.555183
-49.711407 32.599155 -80.003288
-47.05579 32.86673 -80.517067
-3.5310347 32.861389 -79.40844
-1.5174677 32.471619 -79.530823
-51.084332 33.016167 -78.099136
-49.229275 33.296318 -78.755226
-46.294422 33.594994 -79.30619
-43.49765 34.416283 -79.515587
-40.618813 35.345749 -79.673149
-37.504498 35.687897 -80.442001
-34.424896 35.621655 -80.34758
-31.360367 35.680229 -80.291023
-28.735229 35.792641 -80.561142
-25.291351 35.828136 -80.327614
-22.495739 35.628399 -80.012199
-19.41312 35.647312 -79.939079
-16.471918 35.185902 -79.532761
-13.525452 35.159386 -79.478203
-10.598249 34.437893 -79.500214
-7.4736671 33.866238 -79.579338
-5.0199604 33.255039 -79.429199
-39.346176 36.181522 -78.802315
-37.565723 36.429333 -78.929558
-34.434212 36.393761 -78.860382
-31.692078 36.284515 -78.846298
-28.546232 36.395477 -79.117088
-25.442368 36.318939 -79.016228
-22.738169 36.267246 -78.564095
-19.629751 36.105152 -78.624496
-17.814886 36.042519 -78.222137
89.117233 -87.128319 -76.58448
90.46006 -87.460632 -76.465904
83.822105 -84.294296 -77.129608
85.436035 -85.544342 -76.519691
88.258713 -86.821411 -76.41964
90.156662 -86.967941 -76.717766
82.959229 -82.433472 -76.582176
84.117668 -83.646637 -75.819008
80.680336 -78.565247 -77.180954
81.612938 -79.769005 -76.352592
79.902664 -76.466255 -76.62439
81.074783 -77.534981 -75.45681
77.568489 -72.764618 -77.528763
78.971077 -73.630554 -76.26104
74.77845 -69.468994 -77.764381
76.644592 -70.351036 -76.59433
78.401573 -71.386024 -75.436256
71.928787 -66.137497 -77.938232
73.943703 -67.317696 -77.12291
75.775742 -67.827515 -75.80632
68.57515 -63.12365 -77.883163
70.894783 -64.117142 -77.31955
73.3162 -64.644913 -76.116547
75.299416 -65.650299 -75.147438
65.858932 -60.405136 -77.909431
67.840034 -61.173996 -77.468643
70.491783 -61.568398 -76.208336
72.544266 -62.2323 -75.370766
65.181747 -58.204407 -77.35379
67.474464 -58.530796 -76.520798
69.754768 -59.021202 -75.456596
62.913197 -54.318073 -77.657295
64.432663 -55.39399 -76.685738
67.044106 -55.767605 -75.602425
62.391033 -52.297676 -76.898331
64.278458 -52.795448 -75.618301
66.285416 -53.394485 -75.12764
61.799088 -49.526794 -76.521172
63.756527 -50.891605 -75.033958
59.49448 -45.724361 -77.470596
60.901478 -46.649338 -76.288628
56.619411 -42.447781 -77.729652
58.628918 -43.369061 -76.725861
60.412704 -44.313862 -75.498215
45.745911 -39.196522 -77.900246
53.362518 -39.430115 -77.793266
55.7384 -40.295834 -76.940269
57.818684 -40.971485 -75.76339
44.463699 -36.515446 -77.716904
46.500046 -37.257153 -77.083267
49.567192 -36.883881 -77.414444
52.576248 -37.39555 -76.848747
55.134937 -37.824711 -75.724037
41.609196 -33.369446 -77.839203
43.638653 -34.43742 -77.252548
46.360725 -34.73703 -75.88385
49.418369 -34.708179 -75.942841
52.079659 -35.071396 -75.571014
54.147774 -35.934692 -75.077652
38.416397 -30.487576 -77.697845
40.625469 -31.315378 -77.05159
43.356739 -31.602617 -76.007729
45.771057 -32.300873 -75.302902
35.309864 -27.4506 -77.576851
37.585274 -28.363634 -76.753365
40.137222 -29.023531 -75.7229
42.612 -29.740711 -75.164474
32.497166 -24.949183 -77.394012
34.418541 -25.600628 -76.433762
36.945484 -26.321337 -75.59864
-21.261032 -21.356796 -77.504204
-19.350941 -21.887375 -77.228058
-16.483486 -22.203255 -77.007935
-13.533628 -22.144014 -77.000015
-10.687304 -21.823915 -77.403053
-7.888598 -21.285213 -77.784409
-5.5187058 -21.060455 -77.93837
-1.4915307 -21.0672 -77.920105
32.215668 -22.341904 -77.054802
33.559559 -22.742313 -75.646317
-21.264238 -19.918875 -76.26387
-19.728569 -20.04847 -75.78315
-16.551716 -20.516346 -75.55677
-13.306008 -20.462339 -75.565208
-10.433176 -20.082741 -76.036308
-7.4608436 -19.877575 -76.316643
-4.478642 -19.598541 -76.464539
-1.4582652 -19.615791 -76.443054
1.3415627 -18.947916 -76.692986
4.4963908 -18.830767 -77.185455
7.5346084 -18.838665 -77.128609
10.324807 -18.712734 -77.437286
13.256655 -18.369717 -77.762581
15.511763 -18.090872 -77.961411
29.650858 -18.81477 -77.671043
31.451981 -19.47974 -76.39814
33.139847 -20.689211 -75.264221
2.0034735 -17.721458 -75.407433
4.4948683 -17.471134 -75.601608
7.6078415 -17.342548 -75.649712
10.619666 -16.98633 -75.984642
13.563427 -16.74332 -76.336304
16.027304 -16.172176 -77.085327
31.55308 -17.903065 -75.49157
16.435316 -14.43012 -76.020706
-87.811493 -6.2421641 -75.900627
-86.915367 -6.309269 -75.101418
-91.08094 -4.2745438 -77.43396
-88.540184 -4.4081736 -76.095322
-90.490341 -2.1383865 -77.655533
-89.015053 -1.4659743 -76.348206
-88.323074 1.4416798 -76.375839
-87.441849 4.1968136 -76.776375
-86.614563 5.092495 -75.835304
-87.039497 6.0917778 -77.434677
-85.649445 7.5103707 -76.427132
-84.466866 9.856988 -76.644684
-83.554367 11.245678 -76.344513
-82.123291 13.308428 -76.417839
-80.639763 14.673417 -76.739014
-79.260101 15.888875 -76.472145
-76.66156 17.395348 -76.470589
-75.341034 18.083601 -76.560364
-73.329941 18.830112 -76.611336
-70.806419 20.054119 -76.303719
-68.728088 20.693274 -75.058952
-69.834908 21.615131 -76.889984
-67.87516 22.809864 -76.312653
-66.692093 24.431953 -76.896805
-64.604477 25.879028 -76.412285
-62.930183 26.888329 -75.184006
-63.099869 27.078497 -76.529991
-61.489265 28.17366 -76.471344
-59.347618 29.643351 -76.5886
-1.5583465 29.615446 -75.347977
-57.938427 30.512001 -76.389389
-55.454208 31.629936 -76.560745
-53.073048 32.705971 -76.888206
-3.8181648 32.492619 -76.298409
-1.6779008 31.491537 -76.398285
-51.906494 33.311733 -76.182945
-49.588932 34.040474 -76.524475
-46.472427 34.53244 -76.56987
-43.507866 35.320671 -76.584175
-41.036167 35.9245 -77.428635
-16.096132 35.718571 -76.830902
-13.37921 35.608673 -76.635902
-10.502913 35.074318 -76.581215
-7.5547318 34.299789 -76.361397
-5.3009381 33.351902 -76.585564
-42.289722 36.083317 -75.427757
-40.269901 36.360874 -76.324692
-37.550591 37.305588 -76.539185
-34.552765 37.327686 -76.545563
-31.505728 37.068863 -76.519836
-28.566916 36.944508 -76.48848
-25.531767 37.114437 -76.408882
-22.42774 36.886097 -76.561134
-19.55941 36.640999 -76.54969
-17.037258 36.297977 -76.145477
-14.27469 36.036522 -75.414787
91.009857 -87.219551 -74.64489
85.81385 -85.114822 -73.547829
88.347382 -86.489281 -73.434914
90.69252 -86.5009 -73.610924
83.341331 -82.044769 -73.810997
84.450256 -83.174416 -73.078064
82.381943 -79.501259 -73.482002
80.727776 -75.993027 -74.614822
81.669144 -76.634262 -73.31076
80.233795 -73.287811 -73.865456
81.354218 -74.059036 -72.756897
77.731789 -69.501205 -74.764854
79.300743 -70.591118 -73.440491
77.281784 -67.213181 -73.990067
78.573608 -67.872322 -72.772278
74.575302 -63.704544 -74.505035
76.281792 -64.66684 -73.311897
71.901321 -60.380283 -74.931854
73.768806 -61.386471 -73.811661
75.379059 -62.028332 -72.546852
70.996445 -58.15152 -74.227379
72.969452 -58.864357 -72.95649
68.263748 -54.993942 -74.566727
70.501534 -55.572346 -73.312721
72.281029 -56.463684 -72.311371
65.150826 -51.501064 -74.835823
67.626534 -52.355152 -73.890602
69.666534 -52.961338 -72.598587
62.451954 -48.975548 -74.642021
64.557945 -49.524986 -74.252213
67.105003 -49.7146 -72.953674
61.983261 -46.325699 -73.948006
64.422295 -46.642624 -73.027908
66.272652 -47.636467 -72.368561
59.755699 -42.265263 -74.693253
61.274654 -43.489021 -73.313637
63.686016 -44.288975 -72.334114
59.057018 -40.34948 -73.67057
60.676132 -41.580399 -72.550056
56.173702 -36.829227 -74.306984
57.988037 -37.722279 -73.157967
47.590275 -33.650414 -74.688576
48.99762 -33.378426 -74.731201
52.930386 -33.911156 -74.441589
55.444256 -34.626392 -73.265518
57.267269 -35.4454 -72.352524
44.556026 -30.450075 -74.775124
46.769684 -31.263369 -74.298615
49.4879 -31.438978 -73.651749
52.404999 -31.598631 -73.220367
54.607548 -32.387081 -72.364754
38.948174 -27.073982 -74.9319
40.907475 -27.820024 -74.410416
43.570206 -28.43222 -73.758919
46.378098 -28.715349 -72.975983
49.379402 -29.280109 -72.47924
51.679264 -29.551868 -72.309273
35.293049 -24.311548 -74.711456
37.795738 -25.129551 -74.043228
40.165386 -25.820005 -73.207466
43.028282 -26.499783 -72.467621
45.260616 -26.938698 -72.062317
34.988167 -22.516115 -73.938545
36.988647 -22.978634 -72.68605
39.173779 -23.903566 -72.097275
-19.188213 -18.721609 -74.461411
-16.353832 -18.911545 -73.974022
-13.569133 -19.018566 -73.819458
-10.613042 -18.590849 -74.03141
-7.7157903 -18.453449 -74.313866
-4.6280169 -18.247883 -74.622299
-1.1090112 -18.263367 -74.538689
0.36932263 -18.101278 -74.678879
32.711578 -18.519354 -74.551651
34.374146 -19.429245 -73.405014
36.222595 -20.495003 -72.11351
-19.232136 -17.284443 -73.016365
-16.83073 -17.723686 -72.543579
-13.34779 -17.762339 -72.351807
-10.351034 -17.65756 -72.534729
-7.3644519 -17.416637 -72.877022
-4.5062928 -17.162374 -73.204033
-1.5257661 -17.28054 -73.203712
1.404289 -16.821556 -73.49295
4.455111 -16.124199 -73.49498
7.4504542 -15.877747 -73.797005
10.36396 -15.569584 -74.16259
13.169407 -15.337889 -74.458221
32.21257 -17.7631 -74.413971
33.866146 -17.788668 -73.12516
5.7695427 -14.888802 -72.134415
7.7596998 -14.77194 -72.371201
10.637681 -14.581678 -72.800858
13.67492 -14.315675 -73.087181
15.938018 -13.575764 -73.450943
-86.197006 -6.4065866 -73.424934
-87.141212 -4.4934421 -74.842003
-86.321877 -4.4115496 -73.306976
-87.608353 -1.2913688 -74.598572
-86.042252 -1.610654 -73.216568
-87.42263 1.2030184 -74.510925
-85.965096 1.6661875 -73.119797
-87.088249 3.2105472 -74.844704
-85.573769 4.5792727 -73.505463
-83.969002 5.8259277 -72.044006
-84.621582 7.3145666 -73.798065
-83.819 8.0828962 -72.778252
-84.124992 9.471159 -74.538437
-83.139786 10.58679 -73.412666
-82.00428 13.480616 -73.546425
-80.931725 14.847754 -74.639153
-81.210632 15.193749 -72.934891
-79.487785 16.089695 -73.49839
-76.650551 17.294504 -73.505257
-74.855705 17.951658 -74.019295
-75.227478 18.158651 -73.159668
-73.418777 18.88759 -73.515602
-70.578751 20.23805 -73.551788
-68.671577 20.799234 -74.471649
-69.18589 21.120506 -72.73381
-67.236679 22.088186 -73.676796
-65.205902 23.246227 -73.044472
-66.070999 24.089432 -74.871674
-64.14727 25.124037 -73.718147
-62.48592 26.414318 -73.006485
-61.160091 27.970467 -73.590889
-59.302811 29.41613 -73.279465
-2.3262653 29.200695 -73.630997
-57.910946 30.557079 -73.597321
-55.474438 31.877699 -73.440338
-53.888203 32.880695 -73.480721
-3.8298221 31.849005 -73.490906
-2.6636467 30.416077 -73.384987
-52.403381 33.579224 -73.411957
-49.567726 34.381683 -73.546669
-46.474079 35.181549 -73.481911
-44.098354 35.725742 -73.876213
-15.782681 35.945045 -74.606277
-13.087044 35.940292 -74.513718
-10.31187 35.561749 -73.605949
-7.5326304 34.593464 -73.56945
-5.4280324 33.429939 -73.589821
-42.812202 36.281403 -73.199417
-40.416046 36.875126 -73.520485
-37.666538 37.798038 -73.45694
-34.546864 38.315826 -73.394325
-31.47101 37.972427 -73.479401
-28.519848 37.563812 -73.508392
-25.507965 37.653339 -73.669708
-22.430622 37.565449 -73.595978
-19.445887 37.327454 -73.457596
-16.555799 36.65321 -73.45536
-13.606862 36.315987 -73.291199
-11.451155 36.096428 -72.894798
85.972717 -85.138176 -70.440475
87.927765 -86.276138 -70.826591
90.080803 -86.21962 -71.862167
83.723061 -81.737938 -70.497879
84.474419 -82.902664 -70.559608
83.130272 -79.516998 -70.555664
82.666924 -76.477409 -70.484009
80.915695 -72.175095 -71.890823
82.351036 -73.542702 -70.444138
80.528313 -70.060349 -71.293518
81.829811 -70.695419 -70.053902
77.913643 -66.004944 -71.930939
79.582954 -67.417549 -70.569237
81.256622 -68.472336 -69.263405
77.404297 -63.922024 -70.981773
78.539085 -64.95005 -70.061272
74.89138 -60.156448 -71.825165
76.389099 -61.50808 -70.463219
74.233963 -58.082123 -70.837257
75.459808 -59.174587 -70.003067
71.607735 -54.544838 -71.605965
73.125771 -55.588287 -70.409561
70.861847 -52.338932 -70.650345
72.362648 -53.496147 -69.630722
68.288826 -48.997055 -71.206276
69.737564 -49.830029 -70.045937
65.524399 -45.498505 -71.763077
67.44104 -46.537834 -70.49157
69.106819 -47.72662 -69.343941
62.719082 -42.276539 -71.943962
64.868233 -43.266014 -70.86235
66.585625 -44.213596 -69.771057
59.673725 -39.556721 -71.673767
61.667259 -40.212242 -71.390053
63.982323 -40.78973 -70.06424
59.001381 -37.19762 -71.11515
61.39257 -37.603783 -70.184982
63.091484 -38.862335 -69.421921
56.645405 -33.587662 -71.407936
58.274704 -34.515194 -70.234207
60.438515 -35.421719 -69.422363
53.566776 -30.469986 -71.691414
55.720547 -31.548759 -70.595734
57.809772 -32.496628 -69.250557
47.241798 -27.353741 -71.792984
49.704193 -27.936373 -71.40493
52.710697 -28.30254 -70.68721
